ply
format ascii 1.0
comment PCL generated
element vertex 945
property float x
property float y
property float z
property uchar red
property uchar green
property uchar blue
property float nx
property float ny
property float nz
property float curvature
element camera 0
property float view_px
property float view_py
property float view_pz
property float x_axisx
property float x_axisy
property float x_axisz
property float y_axisx
property float y_axisy
property float y_axisz
property float z_axisx
property float z_axisy
property float z_axisz
property float focal
property float scalex
property float scaley
property float centerx
property float centery
property int viewportx
property int viewporty
property float k1
property float k2
end_header
-0.052299999 -0.54330999 -0.32512999 148 84 33 0 1 0 0
-0.04555 -0.54374999 -0.32758 150 85 32 0 1 0 0
-0.028899999 -0.54224998 -0.32758 152 87 25 0 1 0 0
-0.0092000002 -0.54201001 -0.3276 143 75 30 0 1 0 0
-0.0026499999 -0.54216999 -0.32978001 155 85 29 0 1 0 0
0.0166 -0.54237002 -0.32982001 161 95 24 0 1 0 0
0.041620001 -0.54290998 -0.32584 169 101 44 0 1 0 0
0.06047 -0.54308999 -0.32589 146 79 29 0 1 0 0
0.085579999 -0.54268998 -0.32767999 156 91 26 0 1 0 0
0.12872 -0.54285997 -0.32986 173 105 34 0 1 0 0
0.15212999 -0.54301 -0.32583001 170 104 44 0 1 0 0
0.17595001 -0.54273999 -0.32764 159 88 21 0 1 0 0
0.19957 -0.54220998 -0.32945001 160 86 24 0 1 0 0
0.22213 -0.54276001 -0.32572001 164 95 14 0 1 0 0
0.20828 -0.53732997 -0.32969999 0 0 0 0 1 0 0
-0.34828001 -0.53439999 -0.32798001 153 84 21 0 1 0 0
-0.33778 -0.53122002 -0.32859001 164 90 31 0 1 0 0
0.20709001 -0.53478003 -0.32506999 0 0 0 0 1 0 0
0.21246 -0.53456002 -0.32978001 0 0 0 0 1 0 0
0.32951999 -0.52820998 -0.32561001 104 69 22 0 1 0 0
0.35275 -0.52831 -0.32675999 94 56 10 0 1 0 0
0.37507001 -0.52718002 -0.32725999 90 52 20 0 1 0 0
0.38001999 -0.52516001 -0.32804 105 69 40 0 1 0 0
0.23183 -0.52429003 -0.32666001 0 0 0 0 1 0 0
0.26574498 -0.51556003 -0.32731 11 0 0 0 1 0 0
-0.31229502 -0.51231003 -0.327995 149 75 15 0 1 0 0
-0.28975001 -0.51389998 -0.32666001 159 87 29 0 1 0 0
-0.28382999 -0.51038003 -0.32730001 110 55 15 0 1 0 0
-0.268655 -0.51244497 -0.32559001 162 88 24 0 1 0 0
-0.25461999 -0.51139998 -0.32508001 145 74 7 0 1 0 0
-0.24574 -0.51081002 -0.32690999 139 69 11 0 1 0 0
-0.23741999 -0.51213998 -0.32912001 140 73 9 0 1 0 0
-0.20159 -0.51055998 -0.32944 126 64 0 0 1 0 0
-0.18161 -0.51314998 -0.32651001 133 69 18 0 1 0 0
-0.16993999 -0.51244998 -0.32949999 134 69 6 0 1 0 0
-0.14924 -0.51288998 -0.32505 120 52 0 0 1 0 0
-0.13761 -0.51261002 -0.32833999 133 65 6 0 1 0 0
-0.11223 -0.51023 -0.32659999 145 75 14 0 1 0 0
-0.10495 -0.51106 -0.32598001 138 71 5 0 1 0 0
-0.096440002 -0.51339 -0.32793 147 79 20 0 1 0 0
-0.093510002 -0.51068997 -0.32968 142 77 14 0 1 0 0
-0.061000001 -0.51085001 -0.32852 134 67 1 0 1 0 0
-0.033300001 -0.51349998 -0.32686999 134 63 0 0 1 0 0
-0.02839 -0.51015002 -0.32675001 147 76 6 0 1 0 0
-0.0016899999 -0.51312 -0.32604 152 87 8 0 1 0 0
0.00942 -0.51267999 -0.32936999 136 69 7 0 1 0 0
0.0163 -0.51045001 -0.32918 146 78 17 0 1 0 0
0.041060001 -0.51230001 -0.32854 143 74 4 0 1 0 0
0.049279999 -0.51050001 -0.32833999 150 79 21 0 1 0 0
0.07277 -0.51183999 -0.32802999 135 68 4 0 1 0 0
0.0823 -0.51064998 -0.32716 151 78 23 0 1 0 0
0.10441 -0.51147002 -0.3272 145 76 1 0 1 0 0
0.11543 -0.5108 -0.32596001 138 70 0 0 1 0 0
0.12761 -0.51133001 -0.32995999 144 76 0 0 1 0 0
0.13638 -0.51195002 -0.32697001 132 63 0 0 1 0 0
0.16046 -0.51020002 -0.32787001 137 64 0 0 1 0 0
0.17004 -0.51190001 -0.32584 133 68 0 0 1 0 0
0.19507 -0.51286 -0.32844001 142 69 0 0 1 0 0
0.20122001 -0.51334 -0.32673001 151 81 18 0 1 0 0
0.27623001 -0.51345998 -0.32914999 161 89 26 0 1 0 0
0.28011999 -0.51112998 -0.32780001 158 86 28 0 1 0 0
0.29675001 -0.51223999 -0.32842001 15 0 0 0 1 0 0
-0.19179 -0.50931001 -0.32666001 140 70 10 0 1 0 0
-0.18341 -0.50901997 -0.32879001 146 79 13 0 1 0 0
-0.15961 -0.50895 -0.32782999 140 77 16 0 1 0 0
-0.13575 -0.50936002 -0.32707 142 74 15 0 1 0 0
-0.025450001 -0.50936002 -0.32815999 153 82 1 0 1 0 0
-0.0021500001 -0.50998002 -0.32782 165 94 27 0 1 0 0
0.0042599998 -0.50988001 -0.32528001 141 75 17 0 1 0 0
0.1789 -0.50941002 -0.32819 217 172 125 0 1 0 0
0.21081001 -0.50939 -0.32799 141 72 29 0 1 0 0
0.28426999 -0.50737 -0.32958001 132 67 18 0 1 0 0
0.31321999 -0.49263999 -0.32708001 52 0 0 0 1 0 0
0.2139 -0.48881999 -0.32799 61 30 27 0 1 0 0
-0.59877002 -1.3121001 -0.32455 62 23 0 0 1 0 0
-0.51920003 -1.30058 -0.32401001 36 7 0 0 1 0 0
-0.029370001 -0.54198003 -0.3211 161 97 41 0 1 0 0
-0.022679999 -0.54190999 -0.32317001 144 78 23 0 1 0 0
-0.0032800001 -0.54212999 -0.32325 154 86 27 0 1 0 0
0.015900001 -0.54255003 -0.32365 159 91 32 0 1 0 0
0.066210002 -0.54294002 -0.32168001 150 84 27 0 1 0 0
0.084859997 -0.54262 -0.32148999 155 90 27 0 1 0 0
0.10954 -0.54312998 -0.32376999 156 90 23 0 1 0 0
0.12794 -0.54277998 -0.32372001 168 99 34 0 1 0 0
0.1751 -0.54264998 -0.32159001 160 90 32 0 1 0 0
0.19874001 -0.54237002 -0.32337999 159 87 11 0 1 0 0
0.23808999 -0.54009998 -0.32426 172 101 32 0 1 0 0
-0.33875999 -0.53057998 -0.32218 166 88 35 0 1 0 0
0.35157999 -0.52824003 -0.32095999 102 66 23 0 1 0 0
0.37421 -0.52783 -0.32189 101 68 43 0 1 0 0
0.37902999 -0.52557999 -0.3224 86 49 7 0 1 0 0
-0.31455001 -0.51011002 -0.3224 156 82 21 0 1 0 0
-0.28496999 -0.51051998 -0.32306001 108 49 0 0 1 0 0
-0.24587999 -0.51019001 -0.32330999 147 72 15 0 1 0 0
-0.22854 -0.51314002 -0.32244 110 49 0 0 1 0 0
-0.20144001 -0.51198 -0.32471001 132 66 13 0 1 0 0
-0.19239999 -0.51213002 -0.32225999 137 71 27 0 1 0 0
-0.16068999 -0.51402003 -0.32227999 126 60 0 0 1 0 0
-0.11668 -0.51176 -0.32299 136 69 9 0 1 0 0
-0.083789997 -0.51021999 -0.32056001 140 76 23 0 1 0 0
-0.076240003 -0.51344001 -0.32383001 135 69 2 0 1 0 0
-0.072410002 -0.51071 -0.32484999 129 63 8 0 1 0 0
-0.044709999 -0.51306999 -0.32300001 135 67 8 0 1 0 0
-0.03988 -0.51001 -0.32308999 146 77 10 0 1 0 0
-0.02795 -0.51271999 -0.32451001 146 77 10 0 1 0 0
-0.01318 -0.51269001 -0.32216999 152 83 19 0 1 0 0
0.01829 -0.51187998 -0.32104 150 79 21 0 1 0 0
0.027589999 -0.511105 -0.32266501 150 80 11 0 1 0 0
0.037099998 -0.51046002 -0.32440001 148 81 19 0 1 0 0
0.050220001 -0.51194 -0.32045001 148 80 10 0 1 0 0
0.061439998 -0.51192999 -0.32407001 148 76 0 0 1 0 0
0.070330001 -0.51010001 -0.32317999 142 71 4 0 1 0 0
0.093220003 -0.51191002 -0.32385999 153 86 11 0 1 0 0
0.10333 -0.51024997 -0.32199001 143 73 0 0 1 0 0
0.12483 -0.51152998 -0.32302999 144 74 2 0 1 0 0
0.13643999 -0.5104 -0.32078999 141 71 0 0 1 0 0
0.14835 -0.51008999 -0.32418001 132 65 0 0 1 0 0
0.15943 -0.51230001 -0.32291999 129 58 4 0 1 0 0
0.18827 -0.51120001 -0.32166001 128 55 0 0 1 0 0
0.20446 -0.51363999 -0.3204 144 70 4 0 1 0 0
0.27919999 -0.51208001 -0.32427999 159 88 23 0 1 0 0
0.29549 -0.51240999 -0.32389 8 0 0 0 1 0 0
0.30135 -0.51098001 -0.32122999 160 67 5 0 1 0 0
-0.33360001 -0.50743997 -0.32089001 163 89 26 0 1 0 0
-0.28953001 -0.50941002 -0.32155001 95 45 0 0 1 0 0
-0.23176999 -0.50975001 -0.32370999 139 73 20 0 1 0 0
-0.21228001 -0.50866997 -0.32464999 124 59 8 0 1 0 0
-0.18482 -0.50936002 -0.32124001 148 79 29 0 1 0 0
-0.16102999 -0.50928998 -0.32030001 133 70 9 0 1 0 0
-0.0073299999 -0.50975001 -0.32161999 147 78 13 0 1 0 0
0.18126 -0.50939 -0.3224 209 147 51 0 1 0 0
0.19671001 -0.50721002 -0.32172 147 77 17 0 1 0 0
0.24233 -0.49131 -0.32335001 40 22 0 0 1 0 0
0.31191999 -0.49239999 -0.32284001 48 0 0 0 1 0 0
-0.56882 -1.3094701 -0.31805 55 25 0 0 1 0 0
-0.61840999 -1.2981 -0.31867 59 26 0 0 1 0 0
-0.53903002 -1.2956899 -0.31995001 32 5 0 0 1 0 0
-0.55956 -1.29289 -0.31635001 32 1 0 0 1 0 0
-0.52105999 -1.28335 -0.31988999 28 4 0 0 1 0 0
-0.53817999 -1.2701401 -0.31514001 35 10 0 0 1 0 0
-0.023360001 -0.54210001 -0.31694999 141 74 10 0 1 0 0
-0.00397 -0.54231 -0.31705999 155 86 34 0 1 0 0
0.02166 -0.54290003 -0.31944999 152 86 33 0 1 0 0
0.04095 -0.54285997 -0.31957999 167 98 35 0 1 0 0
0.065520003 -0.54286999 -0.31547001 157 91 36 0 1 0 0
0.08416 -0.54232001 -0.3152 153 89 24 0 1 0 0
0.10879 -0.54281998 -0.3175 158 93 29 0 1 0 0
0.12714 -0.54271001 -0.31740999 167 99 40 0 1 0 0
0.15132 -0.54293001 -0.31974 164 97 33 0 1 0 0
0.17426001 -0.54255998 -0.31556001 162 93 30 0 1 0 0
0.19786 -0.54228002 -0.31738001 161 88 17 0 1 0 0
0.23695 -0.5395 -0.31810999 174 102 26 0 1 0 0
-0.34204 -0.53347999 -0.31704 162 89 20 0 1 0 0
-0.33978 -0.52995998 -0.31560001 156 82 23 0 1 0 0
0.32828 -0.52793002 -0.31948999 99 61 26 0 1 0 0
0.33311 -0.52778 -0.3154 105 70 32 0 1 0 0
0.37807 -0.52598 -0.31694001 91 52 10 0 1 0 0
0.39535999 -0.52951998 -0.31968999 157 107 51 0 1 0 0
0.40695 -0.52921999 -0.31755 152 101 46 0 1 0 0
0.41262999 -0.52776003 -0.31869999 152 99 46 0 1 0 0
0.41850999 -0.52916002 -0.31558001 145 92 51 0 1 0 0
0.42403001 -0.52745003 -0.31658 145 89 26 0 1 0 0
0.21313 -0.51776999 -0.31613001 151 84 36 0 1 0 0
0.26626 -0.51923001 -0.31626999 6 0 0 0 1 0 0
-0.31268001 -0.51397997 -0.31959999 148 75 18 0 1 0 0
-0.30904001 -0.51104999 -0.31854999 154 78 26 0 1 0 0
-0.29111001 -0.51379001 -0.31913 160 88 12 0 1 0 0
-0.27094001 -0.51156002 -0.31747001 162 89 34 0 1 0 0
-0.26934001 -0.51335001 -0.31854999 161 88 28 0 1 0 0
-0.25630999 -0.51199001 -0.31748 157 86 17 0 1 0 0
-0.24728 -0.51091999 -0.31909999 138 73 11 0 1 0 0
-0.22265001 -0.51073003 -0.31636 129 64 13 0 1 0 0
-0.20321999 -0.51152998 -0.31832001 127 63 0 0 1 0 0
-0.1832 -0.51368999 -0.31507 135 69 14 0 1 0 0
-0.14824 -0.51093 -0.31555 128 61 0 0 1 0 0
-0.13957 -0.51403999 -0.31744999 132 64 5 0 1 0 0
-0.12805 -0.51247001 -0.31992999 138 74 16 0 1 0 0
-0.1136 -0.51008999 -0.31885001 153 84 21 0 1 0 0
-0.096825004 -0.51199996 -0.31678501 142 75 12 0 1 0 0
-0.066799998 -0.51402003 -0.31604001 130 64 7 0 1 0 0
-0.063129999 -0.51023 -0.31582999 130 65 5 0 1 0 0
-0.05573 -0.51349998 -0.31968001 141 76 13 0 1 0 0
-0.05133 -0.51029003 -0.31973001 131 64 0 0 1 0 0
-0.035270002 -0.51313001 -0.31525001 139 71 10 0 1 0 0
-0.02427 -0.51226002 -0.31826001 144 75 7 0 1 0 0
-0.01884 -0.51002997 -0.31826001 146 77 14 0 1 0 0
0.00722 -0.51231998 -0.31773001 151 81 20 0 1 0 0
0.01375 -0.51019001 -0.31707999 147 79 18 0 1 0 0
0.038699999 -0.51194 -0.31690001 142 72 0 0 1 0 0
0.04645 -0.51034999 -0.31589001 148 78 22 0 1 0 0
0.058109999 -0.51006001 -0.31924999 137 67 0 0 1 0 0
0.07017 -0.51156002 -0.31606999 146 80 25 0 1 0 0
0.081859998 -0.51200002 -0.31990999 158 85 30 0 1 0 0
0.088160001 -0.51038003 -0.31687 168 93 23 0 1 0 0
0.091190003 -0.51055002 -0.31869 152 79 8 0 1 0 0
0.10178 -0.51161999 -0.31553 151 78 7 0 1 0 0
0.11348 -0.51154 -0.31941 147 77 17 0 1 0 0
0.12408 -0.51027 -0.31720001 142 71 4 0 1 0 0
0.12645 -0.51033998 -0.31915 132 66 0 0 1 0 0
0.13349999 -0.51160002 -0.31531999 135 67 0 0 1 0 0
0.14504001 -0.51116002 -0.31858 139 73 0 0 1 0 0
0.1675 -0.51196003 -0.31536999 144 72 0 0 1 0 0
0.19122 -0.51226002 -0.31593001 141 68 13 0 1 0 0
0.19799 -0.51301003 -0.31505999 148 77 0 0 1 0 0
-0.33396 -0.50737 -0.31747001 158 86 24 0 1 0 0
-0.31595999 -0.50972998 -0.31549999 151 77 27 0 1 0 0
-0.29063001 -0.50954998 -0.31749001 98 43 5 0 1 0 0
-0.22248 -0.50676 -0.31983 124 59 12 0 1 0 0
-0.13709 -0.50922 -0.31931999 144 79 17 0 1 0 0
-0.09008 -0.50976998 -0.31779999 157 89 32 0 1 0 0
0.15703 -0.50999999 -0.31571001 129 58 0 0 1 0 0
0.16893999 -0.50884998 -0.31843001 141 70 0 0 1 0 0
0.20747 -0.50911999 -0.31603 143 72 35 0 1 0 0
0.29742 -0.50958002 -0.31998 158 82 5 0 1 0 0
0.27652001 -0.50362998 -0.31600001 149 76 10 0 1 0 0
0.26541999 -0.49803999 -0.3152 23 6 0 0 1 0 0
0.24147999 -0.49111 -0.31911001 37 21 8 0 1 0 0
0.26462001 -0.49476999 -0.31924999 29 13 0 0 1 0 0
0.2079 -0.48953 -0.31940001 36 10 5 0 1 0 0
0.21039 -0.48798001 -0.31634 26 6 0 0 1 0 0
0.24144 -0.48367 -0.31906 44 22 0 0 1 0 0
0.24883001 -0.48395503 -0.31648999 61 38 2 0 1 0 0
0.22369 -0.47523001 -0.31593001 29 11 0 0 1 0 0
0.22697 -0.47821 -0.31617001 41 27 4 0 1 0 0
-0.48434001 -1.31545 -0.31321999 32 2 0 0 1 0 0
-0.49041 -1.31299 -0.31101 31 8 0 0 1 0 0
-0.59129 -1.3062299 -0.31395999 53 20 0 0 1 0 0
-0.57890999 -1.28793 -0.31176999 34 9 0 0 1 0 0
-0.63543999 -1.27992 -0.31208 62 27 0 0 1 0 0
-0.02396 -0.54206997 -0.31042999 142 80 28 0 1 0 0
-0.0045799999 -0.54227 -0.31077 156 87 37 0 1 0 0
0.01461 -0.54246002 -0.31088999 157 92 32 0 1 0 0
0.021090001 -0.54260999 -0.31305999 155 86 32 0 1 0 0
0.040270001 -0.54281002 -0.31314 165 98 46 0 1 0 0
0.10804 -0.54273999 -0.31138 160 93 25 0 1 0 0
0.13258 -0.54299998 -0.31353 171 102 32 0 1 0 0
0.15048 -0.54285997 -0.31347999 160 92 31 0 1 0 0
0.19699 -0.54218 -0.3114 155 85 27 0 1 0 0
0.23611 -0.53965002 -0.31218001 170 94 26 0 1 0 0
0.45956999 -0.53101999 -0.31318 143 89 32 0 1 0 0
0.35029 -0.52794999 -0.31489 101 66 44 0 1 0 0
0.35523 -0.52827001 -0.31106001 95 55 25 0 1 0 0
0.37213001 -0.52841997 -0.31059 91 53 36 0 1 0 0
0.37722 -0.52662998 -0.31161001 90 51 28 0 1 0 0
0.41207001 -0.52871001 -0.31321001 140 88 53 0 1 0 0
0.42991999 -0.52885002 -0.31345999 140 86 43 0 1 0 0
0.43561 -0.52784997 -0.31492999 142 89 36 0 1 0 0
0.44113001 -0.52876002 -0.31152999 132 73 20 0 1 0 0
0.44694999 -0.52776998 -0.31297001 160 109 58 0 1 0 0
-0.33414 -0.52464002 -0.31020001 163 89 26 0 1 0 0
-0.33453 -0.51628 -0.31136999 111 56 0 0 1 0 0
-0.16269 -0.51586998 -0.31171 117 55 0 0 1 0 0
0.26513001 -0.51863003 -0.31235999 15 3 0 0 1 0 0
-0.31217501 -0.51225996 -0.311995 153 80 16 0 1 0 0
-0.29240999 -0.51366001 -0.31186 162 89 32 0 1 0 0
-0.24897 -0.51151001 -0.31151 155 87 30 0 1 0 0
-0.22975001 -0.51367998 -0.31217 129 63 6 0 1 0 0
-0.20254999 -0.51165003 -0.31285 122 55 0 0 1 0 0
-0.19385999 -0.51231003 -0.31025001 137 78 21 0 1 0 0
-0.15842 -0.51054001 -0.31165001 127 60 5 0 1 0 0
-0.15116 -0.51429999 -0.31417999 116 53 0 0 1 0 0
-0.11862 -0.51275003 -0.31185001 137 71 18 0 1 0 0
-0.11499 -0.51020002 -0.31123 148 81 26 0 1 0 0
-0.10681 -0.51119 -0.31424001 146 77 14 0 1 0 0
-0.078060001 -0.51357001 -0.31222001 127 61 1 0 1 0 0
-0.074519999 -0.51093 -0.31277999 129 62 0 0 1 0 0
-0.046670001 -0.51362997 -0.31167999 138 69 5 0 1 0 0
-0.042160001 -0.51024002 -0.31103 142 75 11 0 1 0 0
-0.03066 -0.51029998 -0.31499001 148 80 12 0 1 0 0
-0.01528 -0.51187003 -0.31031001 154 83 13 0 1 0 0
-0.0096800001 -0.51032001 -0.31018001 151 79 17 0 1 0 0
-0.0038999999 -0.51187998 -0.31382999 157 88 18 0 1 0 0
0.00185 -0.51046997 -0.31380001 141 75 4 0 1 0 0
0.027480001 -0.51151001 -0.31301001 141 75 4 0 1 0 0
0.034419999 -0.51020002 -0.31233001 141 70 3 0 1 0 0
0.058970001 -0.51156998 -0.31246999 149 78 11 0 1 0 0
0.079269998 -0.51051003 -0.31470001 149 79 5 0 1 0 0
0.092615001 -0.51103497 -0.31172499 159 86 16 0 1 0 0
0.11227 -0.51056999 -0.31384 140 70 0 0 1 0 0
0.12195 -0.51125002 -0.31110001 149 79 5 0 1 0 0
0.15346 -0.51078999 -0.31060001 131 61 0 0 1 0 0
0.15673999 -0.51191998 -0.31217 146 77 21 0 1 0 0
0.18511 -0.51085001 -0.31005999 192 126 0 0 1 0 0
0.20087001 -0.51021999 -0.31334999 133 62 0 0 1 0 0
0.23748499 -0.51214999 -0.31200001 0 0 0 0 1 0 0
0.243315 -0.51201499 -0.31264001 9 1 0 0 1 0 0
0.29690501 -0.51135004 -0.31099498 76 38 0 0 1 0 0
-0.33517 -0.50893003 -0.31176999 167 92 35 0 1 0 0
-0.33491001 -0.50678998 -0.31400999 155 87 17 0 1 0 0
-0.23269001 -0.50940001 -0.31189999 129 64 11 0 1 0 0
-0.21362001 -0.50884002 -0.31268999 122 60 8 0 1 0 0
-0.18615 -0.50923997 -0.31321999 145 79 22 0 1 0 0
-0.16248 -0.50963998 -0.31253001 139 72 8 0 1 0 0
-0.13843 -0.50909001 -0.31158999 149 81 24 0 1 0 0
-0.091480002 -0.50986999 -0.31020001 151 85 28 0 1 0 0
0.14483 -0.50945002 -0.31178001 144 74 15 0 1 0 0
0.1779 -0.50959998 -0.31057 199 131 43 0 1 0 0
0.29787001 -0.50707501 -0.31453499 148 72 2 0 1 0 0
0.27961001 -0.50352001 -0.31193 151 76 6 0 1 0 0
0.28336 -0.50230002 -0.31130001 151 73 0 0 1 0 0
0.20697001 -0.4948 -0.31103 26 5 0 0 1 0 0
0.24372999 -0.49177 -0.31162 30 21 0 0 1 0 0
0.26258001 -0.49015 -0.31286001 34 19 0 0 1 0 0
0.25185999 -0.48541999 -0.31259999 43 28 8 0 1 0 0
0.25577 -0.48554999 -0.31288001 45 28 0 0 1 0 0
0.21781 -0.48117 -0.31485999 52 33 9 0 1 0 0
0.24078999 -0.48293 -0.31424001 27 0 0 0 1 0 0
0.25738999 -0.48468 -0.31000999 51 29 11 0 1 0 0
0.2123 -0.47547999 -0.31268999 43 29 0 0 1 0 0
-0.50917 -1.30212 -0.30651999 26 4 0 0 1 0 0
-0.50440001 -1.30365 -0.30875 38 11 0 0 1 0 0
-0.61141998 -1.29776 -0.30903 42 12 0 0 1 0 0
-0.045329999 -0.54430002 -0.30511999 157 92 32 0 1 0 0
-0.030649999 -0.54214001 -0.30834001 143 78 18 0 1 0 0
0.02045 -0.54255998 -0.30680999 155 88 37 0 1 0 0
0.039609998 -0.54275 -0.30691999 166 102 44 0 1 0 0
0.064800002 -0.54281998 -0.30908 156 90 30 0 1 0 0
0.083389997 -0.54250002 -0.30897 154 91 30 0 1 0 0
0.10177 -0.54260999 -0.30926001 169 104 39 0 1 0 0
0.10726 -0.54268003 -0.30507001 164 99 37 0 1 0 0
0.13179 -0.54268003 -0.30734 174 107 41 0 1 0 0
0.1497 -0.54301 -0.30754 167 100 36 0 1 0 0
0.17343999 -0.54272997 -0.30947 151 79 17 0 1 0 0
0.19609 -0.54209 -0.30524999 157 91 24 0 1 0 0
0.21929 -0.54222 -0.30755001 176 109 43 0 1 0 0
0.23559 -0.54052001 -0.30678999 168 95 24 0 1 0 0
-0.34446999 -0.53446001 -0.30936 162 91 20 0 1 0 0
-0.34074 -0.52906001 -0.30917999 154 80 16 0 1 0 0
0.33205 -0.52794999 -0.30976 100 63 39 0 1 0 0
0.35396999 -0.52796 -0.30520999 97 61 17 0 1 0 0
0.37645999 -0.52754003 -0.3062 90 52 22 0 1 0 0
0.39993 -0.52903998 -0.30917001 160 109 74 0 1 0 0
0.41743001 -0.52845001 -0.30902001 153 99 56 0 1 0 0
0.44034001 -0.52899998 -0.30561 122 63 0 0 1 0 0
0.45256999 -0.52890998 -0.30974001 156 101 56 0 1 0 0
0.45723 -0.52790999 -0.30517 157 104 38 0 1 0 0
-0.1416 -0.51587999 -0.30689999 129 64 2 0 1 0 0
0.21066 -0.51731002 -0.30770001 129 68 0 0 1 0 0
0.262025 -0.51741004 -0.30798 3 0 0 0 1 0 0
-0.32126999 -0.51336002 -0.30992001 148 79 18 0 1 0 0
-0.31187999 -0.51103002 -0.30522001 155 82 25 0 1 0 0
-0.29995999 -0.51367998 -0.30959001 152 81 14 0 1 0 0
-0.29279 -0.51077002 -0.30930001 103 53 15 0 1 0 0
-0.27256 -0.51170999 -0.30961999 163 89 37 0 1 0 0
-0.25797999 -0.51235998 -0.30952001 149 79 32 0 1 0 0
-0.24911 -0.51046997 -0.30785999 145 79 22 0 1 0 0
-0.23961 -0.51279998 -0.30827999 133 69 18 0 1 0 0
-0.20477 -0.51213002 -0.30666 129 64 13 0 1 0 0
-0.18636 -0.51335001 -0.30695999 130 67 4 0 1 0 0
-0.18204001 -0.51125997 -0.30846 138 76 8 0 1 0 0
-0.16918001 -0.51138002 -0.30902001 139 72 8 0 1 0 0
-0.15125 -0.51257002 -0.30912 118 58 0 0 1 0 0
-0.13941 -0.51109999 -0.30803999 129 64 0 0 1 0 0
-0.13001999 -0.51388001 -0.3091 139 74 16 0 1 0 0
-0.12003 -0.51218998 -0.30829999 141 74 19 0 1 0 0
-0.09747 -0.51146001 -0.30621001 143 76 16 0 1 0 0
-0.087345004 -0.51173496 -0.30861002 144 77 19 0 1 0 0
-0.068619996 -0.51449001 -0.30509001 128 60 1 0 1 0 0
-0.05765 -0.51362997 -0.30809 141 74 19 0 1 0 0
-0.053539999 -0.51051003 -0.30770001 126 57 3 0 1 0 0
-0.0263 -0.51280999 -0.30698001 143 77 8 0 1 0 0
0.0049999999 -0.51148999 -0.30590999 146 83 13 0 1 0 0
0.01126 -0.51033002 -0.30537999 153 88 30 0 1 0 0
0.0174 -0.51188499 -0.30895501 143 76 8 0 1 0 0
0.04772 -0.51112998 -0.30858999 155 83 19 0 1 0 0
0.05539 -0.51021999 -0.30750999 142 71 2 0 1 0 0
0.079279996 -0.51161999 -0.30834001 158 90 19 0 1 0 0
0.08811 -0.51038003 -0.30631 148 80 12 0 1 0 0
0.10029 -0.51052999 -0.30985999 156 85 16 0 1 0 0
0.10684 -0.51309001 -0.30698001 147 81 1 0 1 0 0
0.11067 -0.51125002 -0.30752 149 83 16 0 1 0 0
0.12094 -0.51054001 -0.30511001 138 65 10 0 1 0 0
0.14644 -0.51239997 -0.3089 139 70 3 0 1 0 0
0.17498 -0.51115 -0.30763 134 66 9 0 1 0 0
0.20117 -0.51428998 -0.30880001 141 74 12 0 1 0 0
0.23791 -0.51143003 -0.3064 0 0 0 0 1 0 0
0.24177 -0.51301003 -0.30746999 0 0 0 0 1 0 0
-0.33625999 -0.50687999 -0.30766001 152 79 24 0 1 0 0
-0.29067001 -0.50717002 -0.30816001 127 66 16 0 1 0 0
-0.22341999 -0.50603998 -0.30735999 122 57 4 0 1 0 0
-0.099919997 -0.50993001 -0.308 160 93 29 0 1 0 0
-0.068109997 -0.50931001 -0.30906001 148 81 17 0 1 0 0
-0.044909999 -0.50874001 -0.30792999 152 83 17 0 1 0 0
0.133 -0.50974 -0.30842999 139 66 0 0 1 0 0
0.16582 -0.50946999 -0.30693999 142 70 10 0 1 0 0
0.17310999 -0.50955999 -0.30562001 141 69 0 0 1 0 0
0.28632 -0.5036 -0.30845001 142 67 0 0 1 0 0
0.24281999 -0.49211001 -0.30783999 44 31 17 0 1 0 0
0.26464999 -0.49473 -0.30846 21 11 0 0 1 0 0
0.20826 -0.48976001 -0.30627999 30 7 0 0 1 0 0
0.26181999 -0.48877001 -0.30768999 41 30 9 0 1 0 0
0.23176 -0.47547001 -0.30814999 40 24 11 0 1 0 0
-0.55444002 -1.32034 -0.30248001 52 19 0 0 1 0 0
-0.60557002 -1.31576 -0.30405 54 23 0 0 1 0 0
-0.54478002 -1.296 -0.30046999 38 12 0 0 1 0 0
-0.52464998 -1.2998199 -0.30489999 31 4 0 0 1 0 0
-0.52699 -1.28605 -0.3019 29 8 0 0 1 0 0
-0.02454 -0.54202002 -0.30412999 151 86 37 0 1 0 0
-0.0051199999 -0.542 -0.30418 149 82 30 0 1 0 0
0.01987 -0.54228002 -0.30028 158 93 40 0 1 0 0
0.039030001 -0.54224002 -0.30030999 162 98 45 0 1 0 0
0.064099997 -0.54276001 -0.30291 151 88 27 0 1 0 0
0.082659997 -0.54266 -0.30294001 163 98 35 0 1 0 0
0.13099 -0.54285002 -0.3012 169 107 44 0 1 0 0
0.15507001 -0.54329002 -0.3037 172 106 49 0 1 0 0
0.17264999 -0.54288 -0.30357999 157 90 40 0 1 0 0
0.21837001 -0.54212999 -0.30145001 179 109 46 0 1 0 0
0.23484001 -0.54091001 -0.30096999 161 94 19 0 1 0 0
-0.34674001 -0.53492999 -0.30173999 160 86 20 0 1 0 0
0.33089 -0.52789998 -0.30382001 97 56 26 0 1 0 0
0.37526 -0.52745998 -0.30050001 93 53 30 0 1 0 0
0.39908001 -0.52906001 -0.30287001 145 91 45 0 1 0 0
0.41663 -0.52871001 -0.30289 162 110 57 0 1 0 0
-0.12075 -0.51501 -0.30162001 137 73 19 0 1 0 0
0.26273 -0.51615 -0.30406001 9 2 0 0 1 0 0
-0.3267 -0.51098001 -0.30355 154 81 23 0 1 0 0
-0.31524 -0.51372999 -0.30491 149 76 19 0 1 0 0
-0.29372001 -0.51353002 -0.30461001 164 94 22 0 1 0 0
-0.25959 -0.51270998 -0.30182001 143 74 23 0 1 0 0
-0.25055 -0.51164001 -0.30346999 142 75 23 0 1 0 0
-0.23084 -0.51384002 -0.30135 135 69 9 0 1 0 0
-0.22356001 -0.51029998 -0.30491 122 58 0 0 1 0 0
-0.20343 -0.51143998 -0.303305 126 65 8 0 1 0 0
-0.19299001 -0.51124001 -0.30496001 136 71 20 0 1 0 0
-0.16215 -0.51174003 -0.30472001 132 68 12 0 1 0 0
-0.15876001 -0.51205003 -0.30243501 122 59 6 0 1 0 0
-0.14184 -0.51178998 -0.30063 131 62 10 0 1 0 0
-0.10883 -0.51258999 -0.30346 135 67 8 0 1 0 0
-0.076530002 -0.51103997 -0.30114999 132 67 9 0 1 0 0
-0.06521 -0.51033998 -0.30418 122 57 4 0 1 0 0
-0.048560001 -0.51367003 -0.30046999 140 73 9 0 1 0 0
-0.037269998 -0.51323998 -0.30368999 150 83 21 0 1 0 0
-0.032979999 -0.51051998 -0.30298999 150 82 28 0 1 0 0
-0.0060800002 -0.51156002 -0.30202001 143 77 10 0 1 0 0
-0.00066999998 -0.51025999 -0.30151999 145 78 14 0 1 0 0
0.027419999 -0.51236999 -0.30123001 148 79 25 0 1 0 0
0.031890001 -0.51077002 -0.30094001 142 72 0 0 1 0 0
0.037749998 -0.51239002 -0.30447999 159 88 32 0 1 0 0
0.043790001 -0.51050001 -0.30418 147 75 10 0 1 0 0
0.056680001 -0.51251 -0.30055001 150 79 12 0 1 0 0
0.067649998 -0.51117998 -0.30454001 146 77 14 0 1 0 0
0.07643 -0.51065999 -0.30298001 144 75 9 0 1 0 0
0.086975001 -0.51214004 -0.300455 160 90 22 0 1 0 0
0.099090002 -0.51124001 -0.30399999 152 83 19 0 1 0 0
0.10906 -0.5104 -0.30149999 150 80 8 0 1 0 0
0.13057999 -0.51130003 -0.30346 141 72 11 0 1 0 0
0.154 -0.51109999 -0.30272001 135 62 1 0 1 0 0
0.16493 -0.51207 -0.30467001 139 65 0 0 1 0 0
0.18720999 -0.51117998 -0.30329001 191 120 19 0 1 0 0
0.19498999 -0.51308 -0.30377001 136 67 0 0 1 0 0
0.26899001 -0.51122999 -0.30396 33 0 0 0 1 0 0
0.27215999 -0.51170999 -0.30039999 20 0 0 0 1 0 0
0.29852 -0.51182002 -0.30351999 0 0 0 0 1 0 0
-0.33757001 -0.50672001 -0.30123001 155 80 21 0 1 0 0
-0.21487001 -0.50888997 -0.30116001 124 60 4 0 1 0 0
-0.17223001 -0.50971001 -0.30377999 139 77 21 0 1 0 0
-0.09285 -0.50926 -0.30228999 147 84 25 0 1 0 0
-0.069509998 -0.50964999 -0.30160999 143 81 11 0 1 0 0
0.29603001 -0.50673002 -0.30346999 152 73 0 0 1 0 0
0.28830999 -0.50307 -0.30024001 153 75 4 0 1 0 0
0.20567 -0.49915999 -0.30232 115 61 34 0 1 0 0
0.26607001 -0.48579001 -0.30272001 56 39 6 0 1 0 0
0.20883 -0.47554001 -0.30142 11 0 0 0 1 0 0
0.24191 -0.47865999 -0.30237001 31 28 0 0 1 0 0
0.2192 -0.47363001 -0.30344999 52 33 35 0 1 0 0
-0.57514 -1.3109699 -0.29752001 51 20 0 0 1 0 0
-0.62484002 -1.30071 -0.29833001 52 20 0 0 1 0 0
-0.565 -1.29214 -0.29690999 37 10 0 0 1 0 0
-0.54404002 -1.27282 -0.29743001 28 3 0 0 1 0 0
-0.044829998 -0.54220998 -0.29786 156 96 43 0 1 0 0
-0.025420001 -0.54266 -0.29815 156 92 50 0 1 0 0
-0.0059799999 -0.54263997 -0.29824001 163 95 48 0 1 0 0
0.063429996 -0.54246998 -0.29646 156 92 39 0 1 0 0
0.088239998 -0.54272997 -0.29894999 163 95 36 0 1 0 0
0.10651 -0.54284 -0.29909 176 108 51 0 1 0 0
0.13022999 -0.54301 -0.29526001 172 105 46 0 1 0 0
0.15423 -0.54321998 -0.29749 171 103 58 0 1 0 0
0.17185999 -0.54302001 -0.29769999 155 88 15 0 1 0 0
0.19529 -0.54224002 -0.29942 159 90 36 0 1 0 0
0.21754999 -0.54227 -0.29565999 176 109 47 0 1 0 0
0.23401999 -0.54104 -0.29523 161 90 18 0 1 0 0
0.32984 -0.52806997 -0.29820001 107 68 38 0 1 0 0
0.35288 -0.52814001 -0.29942 97 61 28 0 1 0 0
0.39826 -0.52907002 -0.29677999 140 89 25 0 1 0 0
0.42184001 -0.52866 -0.29890999 152 100 54 0 1 0 0
0.43952999 -0.52925003 -0.29951 128 75 20 0 1 0 0
0.456 -0.52718002 -0.29872999 155 108 35 0 1 0 0
0.20837 -0.51732999 -0.29945999 147 80 5 0 1 0 0
0.28878999 -0.51600999 -0.29778999 0 0 0 0 1 0 0
-0.34386 -0.51131999 -0.29786 142 68 5 0 1 0 0
-0.32804999 -0.51077998 -0.29631999 152 81 18 0 1 0 0
-0.31648999 -0.51358998 -0.29771999 148 79 18 0 1 0 0
-0.29501 -0.51317 -0.29708001 151 83 10 0 1 0 0
-0.28972 -0.51011997 -0.29811001 108 55 2 0 1 0 0
-0.26780999 -0.51241004 -0.29816502 155 82 24 0 1 0 0
-0.25207999 -0.51174998 -0.29570001 153 84 30 0 1 0 0
-0.24084 -0.51339 -0.29778999 130 66 12 0 1 0 0
-0.15187 -0.51014 -0.2994 126 63 5 0 1 0 0
-0.14084999 -0.51160997 -0.29791 134 72 7 0 1 0 0
-0.12164 -0.51227999 -0.29684001 139 71 10 0 1 0 0
-0.099710003 -0.51459002 -0.29657 129 64 4 0 1 0 0
-0.087870002 -0.51216 -0.29841 142 76 18 0 1 0 0
-0.055670001 -0.51103997 -0.29639 138 72 17 0 1 0 0
-0.04434 -0.51034999 -0.29940999 135 70 5 0 1 0 0
-0.028279999 -0.51283997 -0.29582 145 76 8 0 1 0 0
-0.01736 -0.51198 -0.29881001 156 86 12 0 1 0 0
-0.01211 -0.51052999 -0.29822001 147 79 18 0 1 0 0
0.016790001 -0.51231998 -0.29804 156 90 19 0 1 0 0
0.02024 -0.51069999 -0.29701999 141 75 0 0 1 0 0
0.052779999 -0.51077998 -0.29615 138 69 0 0 1 0 0
0.064709999 -0.51051003 -0.29938 137 69 0 0 1 0 0
0.097240001 -0.51024997 -0.29789999 148 78 4 0 1 0 0
0.10456 -0.51314002 -0.29660001 142 76 9 0 1 0 0
0.11931 -0.51130003 -0.29989001 151 79 1 0 1 0 0
0.13332 -0.51239002 -0.29536 140 67 0 0 1 0 0
0.14382 -0.51199001 -0.29824999 136 69 5 0 1 0 0
0.16264001 -0.51015002 -0.29519999 135 63 3 0 1 0 0
0.17238 -0.51125002 -0.29699999 146 71 3 0 1 0 0
0.18190999 -0.51055002 -0.29824001 213 168 92 0 1 0 0
0.19749001 -0.51406002 -0.29675001 155 85 11 0 1 0 0
0.20654 -0.51198 -0.29850999 132 75 6 0 1 0 0
0.26141 -0.51349002 -0.29955 6 0 0 0 1 0 0
0.27123001 -0.51182002 -0.29607001 11 0 0 0 1 0 0
0.29767001 -0.51323003 -0.29940999 0 0 0 0 1 0 0
0.30083999 -0.51188999 -0.29563001 0 0 0 0 1 0 0
-0.24471 -0.50871998 -0.29677999 141 78 22 0 1 0 0
-0.22442999 -0.50563002 -0.29565001 123 61 11 0 1 0 0
-0.20325001 -0.50801003 -0.29561999 116 63 8 0 1 0 0
-0.17223001 -0.50953001 -0.29975 135 73 21 0 1 0 0
-0.16594 -0.50853002 -0.29763001 122 76 39 0 1 0 0
-0.15204 -0.50958002 -0.29569 123 66 10 0 1 0 0
0.12982 -0.50998998 -0.29642001 141 69 9 0 1 0 0
0.14158 -0.50971001 -0.29973999 138 69 15 0 1 0 0
0.17437001 -0.50935 -0.29857999 148 75 16 0 1 0 0
0.28733 -0.50240999 -0.29565999 140 70 0 0 1 0 0
0.29484999 -0.50455999 -0.29798999 142 70 0 0 1 0 0
0.26589 -0.49923 -0.29956001 12 0 0 0 1 0 0
0.24403 -0.4941 -0.29736 33 26 1 0 1 0 0
0.25073999 -0.48016 -0.29547 51 37 26 0 1 0 0
0.22744 -0.47426999 -0.29604 39 29 19 0 1 0 0
-0.49728 -1.3208899 -0.29273999 17 0 0 0 1 0 0
-0.59754997 -1.3077101 -0.29356 49 17 0 0 1 0 0
-0.48912999 -1.30863 -0.2933 34 9 0 0 1 0 0
-0.58453 -1.28915 -0.29328001 27 1 0 0 1 0 0
-0.64196002 -1.28257 -0.29144001 63 27 0 0 1 0 0
-7.9999998e-05 -0.54273999 -0.29418001 160 96 40 0 1 0 0
0.019169999 -0.54246002 -0.29416999 156 94 44 0 1 0 0
0.038430002 -0.54193997 -0.29403999 162 98 47 0 1 0 0
0.044160001 -0.54202002 -0.29003999 158 96 44 0 1 0 0
0.062739998 -0.5424 -0.29032999 153 89 35 0 1 0 0
0.087470002 -0.54290003 -0.29275 163 98 33 0 1 0 0
0.10576 -0.54324001 -0.29321 169 102 40 0 1 0 0
0.15346 -0.54337001 -0.29159001 166 96 24 0 1 0 0
0.17727 -0.54307997 -0.29359001 160 93 29 0 1 0 0
0.19449 -0.54237998 -0.29359999 162 90 28 0 1 0 0
-0.34907001 -0.53544003 -0.29389 159 88 34 0 1 0 0
-0.35642999 -0.52869999 -0.29488999 140 77 16 0 1 0 0
0.32879001 -0.52824003 -0.29258001 107 69 23 0 1 0 0
0.35181001 -0.52831 -0.29381999 97 54 25 0 1 0 0
0.37391999 -0.52715999 -0.29453999 96 58 25 0 1 0 0
0.39732 -0.52859998 -0.29043001 148 97 48 0 1 0 0
0.42098001 -0.52867001 -0.29286999 145 92 39 0 1 0 0
0.43865001 -0.52925003 -0.29347 124 72 16 0 1 0 0
0.45506999 -0.52719003 -0.29256001 152 101 50 0 1 0 0
-0.34505001 -0.51262999 -0.29218 150 79 14 0 1 0 0
-0.31779999 -0.51368999 -0.29063001 144 74 13 0 1 0 0
-0.29730999 -0.51054001 -0.29269999 109 65 26 0 1 0 0
-0.28138 -0.51103997 -0.29223999 84 43 0 0 1 0 0
-0.27461001 -0.51034999 -0.29076001 98 46 4 0 1 0 0
-0.26965001 -0.51318002 -0.29201999 151 79 28 0 1 0 0
-0.23204 -0.51436001 -0.29119 133 71 7 0 1 0 0
-0.22461 -0.51028001 -0.29385999 121 59 9 0 1 0 0
-0.20592 -0.51174998 -0.29484999 120 59 2 0 1 0 0
-0.20472001 -0.51121002 -0.29036999 123 63 11 0 1 0 0
-0.078680001 -0.51328999 -0.29098001 126 63 14 0 1 0 0
-0.06735 -0.51216 -0.29372001 128 62 5 0 1 0 0
-0.050439999 -0.51499999 -0.29017001 134 68 0 0 1 0 0
-0.035190001 -0.51147997 -0.29198 146 78 19 0 1 0 0
-0.023499999 -0.51078999 -0.29492 153 84 21 0 1 0 0
-0.0081399996 -0.51157999 -0.29091001 155 88 22 0 1 0 0
0.00278 -0.51116002 -0.29416001 138 71 5 0 1 0 0
0.0087299999 -0.51054001 -0.29345 147 79 7 0 1 0 0
0.025429999 -0.51240999 -0.29089001 148 81 19 0 1 0 0
0.035799999 -0.51288003 -0.29440999 137 65 5 0 1 0 0
0.041080002 -0.51071 -0.29225001 143 77 8 0 1 0 0
0.054590002 -0.51255 -0.29021999 142 69 3 0 1 0 0
0.064900003 -0.51257998 -0.29345 144 73 17 0 1 0 0
0.065159999 -0.51077002 -0.29312 144 74 13 0 1 0 0
0.073629998 -0.51078999 -0.29137 152 85 17 0 1 0 0
0.085239999 -0.51051998 -0.29466999 158 88 27 0 1 0 0
0.11776 -0.51025999 -0.29317999 146 76 18 0 1 0 0
0.15154999 -0.51160997 -0.29089999 127 57 0 0 1 0 0
0.16222 -0.51165998 -0.29407001 138 65 0 0 1 0 0
0.18355 -0.51102 -0.29100999 154 106 38 0 1 0 0
0.19174001 -0.51277 -0.29196 136 68 0 0 1 0 0
0.2999 -0.51292998 -0.29144999 0 0 0 0 1 0 0
-0.3389 -0.50632 -0.29451999 155 80 21 0 1 0 0
-0.33368 -0.50731999 -0.29065999 156 83 26 0 1 0 0
-0.19306 -0.50538999 -0.29422 102 74 52 0 1 0 0
-0.18155 -0.50511003 -0.29339999 100 73 43 0 1 0 0
-0.1498 -0.50630999 -0.29128 111 57 14 0 1 0 0
-0.13142 -0.50857002 -0.292355 136 74 23 0 1 0 0
-0.12101 -0.50909996 -0.29250002 138 76 19 0 1 0 0
-0.094300002 -0.50985003 -0.29468 145 79 22 0 1 0 0
0.15034001 -0.50999999 -0.29170001 129 60 0 0 1 0 0
-0.16847999 -0.50444001 -0.29402 93 52 23 0 1 0 0
0.20456 -0.50397003 -0.29381001 119 65 44 0 1 0 0
0.28639999 -0.50185001 -0.29132 153 78 21 0 1 0 0
0.29376 -0.50313997 -0.29295999 147 75 0 0 1 0 0
-0.18043 -0.49906 -0.29352 99 59 11 0 1 0 0
0.242485 -0.49615502 -0.29255 38 27 2 0 1 0 0
0.2642 -0.49823999 -0.29058 7 0 0 0 1 0 0
0.26506999 -0.49814999 -0.29471999 7 0 0 0 1 0 0
0.20689 -0.47861999 -0.29192001 21 7 0 0 1 0 0
0.21585 -0.47417 -0.29225001 37 31 13 0 1 0 0
-0.53044999 -1.30014 -0.28534001 37 11 0 0 1 0 0
-0.51520002 -1.30485 -0.28814 28 0 0 0 1 0 0
-0.50996 -1.30195 -0.28889 36 4 0 0 1 0 0
-0.6178 -1.2992899 -0.28817001 37 10 0 0 1 0 0
0.01811 -0.54378998 -0.28854999 156 94 42 0 1 0 0
0.037439998 -0.54328001 -0.28845999 170 103 50 0 1 0 0
0.056359999 -0.54249001 -0.28828001 148 85 40 0 1 0 0
0.086709999 -0.54329997 -0.28685001 158 93 33 0 1 0 0
0.10498 -0.54341 -0.28705001 169 103 43 0 1 0 0
0.12947001 -0.54316002 -0.28931999 178 110 53 0 1 0 0
0.15265 -0.54328001 -0.28560001 169 102 40 0 1 0 0
0.17642 -0.54299003 -0.28764001 165 95 34 0 1 0 0
0.1936 -0.54228997 -0.28749999 161 89 24 0 1 0 0
0.19959 -0.54241002 -0.28955001 166 94 34 0 1 0 0
0.21664999 -0.54215997 -0.28977999 174 107 39 0 1 0 0
0.22167 -0.54171002 -0.28555 169 98 29 0 1 0 0
0.22769 -0.54205 -0.28786999 165 93 31 0 1 0 0
0.233 -0.54067999 -0.28929001 168 97 14 0 1 0 0
-0.35128999 -0.53566003 -0.28623 157 87 26 0 1 0 0
-0.01114 -0.53762001 -0.28760001 139 87 41 0 1 0 0
0.00082999998 -0.53854001 -0.28606001 160 100 52 0 1 0 0
-0.022089999 -0.53391999 -0.28801 127 79 39 0 1 0 0
-0.35657999 -0.52914 -0.28937 90 42 3 0 1 0 0
0.32756999 -0.52793998 -0.28659999 109 67 27 0 1 0 0
0.37261999 -0.52683002 -0.28878999 84 50 20 0 1 0 0
0.42013001 -0.52866 -0.28683999 149 92 48 0 1 0 0
0.43768001 -0.52901 -0.28731999 131 81 25 0 1 0 0
0.44385999 -0.52897 -0.28938001 156 106 61 0 1 0 0
0.45405999 -0.52693999 -0.28646001 166 115 50 0 1 0 0
-0.1981 -0.51642001 -0.28692999 148 80 23 0 1 0 0
-0.086989999 -0.51506001 -0.28748 130 72 21 0 1 0 0
-0.32933 -0.51055998 -0.28933001 143 74 23 0 1 0 0
-0.31606999 -0.51060998 -0.28531 154 85 22 0 1 0 0
-0.31141999 -0.51354998 -0.2854 147 79 18 0 1 0 0
-0.29635 -0.51327997 -0.28997999 155 85 27 0 1 0 0
-0.28995001 -0.51336998 -0.28503999 152 85 35 0 1 0 0
-0.26837999 -0.51122999 -0.28906 135 70 12 0 1 0 0
-0.2536 -0.51186001 -0.28795001 145 78 30 0 1 0 0
-0.24487001 -0.51078999 -0.28968 149 83 25 0 1 0 0
-0.21536 -0.51161999 -0.28714001 122 59 0 0 1 0 0
-0.11623999 -0.51402497 -0.28828502 157 86 9 0 1 0 0
-0.10884 -0.51256001 -0.28794 151 89 37 0 1 0 0
-0.10347 -0.51450002 -0.28889 159 94 34 0 1 0 0
-0.087020002 -0.51328999 -0.28878999 141 75 17 0 1 0 0
-0.072209999 -0.51450998 -0.28678 136 70 24 0 1 0 0
-0.061390001 -0.51462001 -0.28604999 138 73 11 0 1 0 0
-0.057840001 -0.51328999 -0.28623 135 67 22 0 1 0 0
-0.053860001 -0.51212001 -0.28551 138 74 7 0 1 0 0
-0.047679998 -0.51183999 -0.28828001 138 71 12 0 1 0 0
-0.030200001 -0.51372999 -0.28527999 154 87 21 0 1 0 0
-0.019339999 -0.51243001 -0.28799 154 86 14 0 1 0 0
-0.01442 -0.51104999 -0.28696001 149 82 18 0 1 0 0
-0.0030700001 -0.51036 -0.28997001 138 71 3 0 1 0 0
0.01474 -0.51147997 -0.28716001 139 72 8 0 1 0 0
0.01647 -0.51108503 -0.28668499 147 79 19 0 1 0 0
0.02925 -0.51097 -0.28902999 146 78 17 0 1 0 0
0.043444999 -0.51144505 -0.28626502 147 77 15 0 1 0 0
0.061889999 -0.51072001 -0.28748 147 80 14 0 1 0 0
0.085160002 -0.51038998 -0.28876999 153 85 15 0 1 0 0
0.094439998 -0.51081002 -0.28659999 148 80 12 0 1 0 0
0.10208 -0.51279002 -0.28571999 155 88 13 0 1 0 0
0.10608 -0.51054001 -0.28988999 147 76 4 0 1 0 0
0.12689 -0.51055002 -0.28511 141 72 11 0 1 0 0
0.13858999 -0.51027 -0.28839999 134 62 0 0 1 0 0
0.14767 -0.51051998 -0.28768 144 71 27 0 1 0 0
0.17116 -0.51001 -0.28691 151 77 13 0 1 0 0
0.17921001 -0.51102 -0.28740001 116 47 0 0 1 0 0
0.20389999 -0.51172 -0.28873 145 70 9 0 1 0 0
0.30285001 -0.51129001 -0.2879 0 0 0 0 1 0 0
-0.34011999 -0.5054 -0.28788 153 79 15 0 1 0 0
-0.2985 -0.50988001 -0.28843999 125 78 42 0 1 0 0
-0.27873001 -0.5097 -0.28948 88 38 0 0 1 0 0
-0.24603 -0.50882 -0.28913 141 76 13 0 1 0 0
-0.21594 -0.50847 -0.28946 132 68 24 0 1 0 0
-0.19231001 -0.50506997 -0.28997001 125 98 84 0 1 0 0
-0.110955 -0.50793499 -0.28757 141 80 33 0 1 0 0
0.20356999 -0.50932002 -0.28514999 144 75 7 0 1 0 0
0.30614001 -0.50708002 -0.28832999 0 0 0 0 1 0 0
-0.16147 -0.50338 -0.28832999 112 80 52 0 1 0 0
0.28742 -0.50272501 -0.28815502 148 73 15 0 1 0 0
0.29271001 -0.50168997 -0.28812999 146 75 0 0 1 0 0
0.26335001 -0.49855 -0.28674001 4 0 0 0 1 0 0
0.20508 -0.49491 -0.28797001 0 0 0 0 1 0 0
-0.17855 -0.48791 -0.28681001 128 105 77 0 1 0 0
0.25977001 -0.48218 -0.28852999 23 4 8 0 1 0 0
0.23717999 -0.47712001 -0.28968999 45 36 21 0 1 0 0
-0.61230999 -1.3185101 -0.28270999 51 16 0 0 1 0 0
-0.5503 -1.2962199 -0.28167999 37 11 0 0 1 0 0
-0.53292 -1.2887599 -0.28386 40 14 0 0 1 0 0
0.0126 -0.54064 -0.28496 154 94 44 0 1 0 0
0.036819998 -0.54299998 -0.28200999 165 103 51 0 1 0 0
0.04298 -0.54430002 -0.28483 163 99 48 0 1 0 0
0.055339999 -0.54430002 -0.28290001 161 97 46 0 1 0 0
0.061939999 -0.54303002 -0.2845 151 88 41 0 1 0 0
0.080420002 -0.54316002 -0.28470999 164 98 43 0 1 0 0
0.085979998 -0.54346001 -0.28086001 163 97 37 0 1 0 0
0.11066 -0.54347998 -0.28310001 172 105 42 0 1 0 0
0.12864999 -0.54285002 -0.28301999 174 108 55 0 1 0 0
0.17553 -0.54264998 -0.28161001 167 99 38 0 1 0 0
0.19871999 -0.54229999 -0.28365999 162 89 30 0 1 0 0
0.23206 -0.54057997 -0.28330001 169 97 23 0 1 0 0
0.33269 -0.52827001 -0.28277999 109 71 36 0 1 0 0
0.35545999 -0.52831 -0.28424999 95 59 12 0 1 0 0
0.37110999 -0.52603 -0.28286999 81 45 41 0 1 0 0
0.39635 -0.52814001 -0.28393999 151 98 34 0 1 0 0
0.41909999 -0.52819997 -0.28038001 153 99 52 0 1 0 0
0.44297999 -0.52895999 -0.28338 164 112 70 0 1 0 0
0.45306 -0.52669001 -0.28038999 145 95 37 0 1 0 0
0.26346001 -0.52402002 -0.28454 15 0 0 0 1 0 0
-0.19845501 -0.51557499 -0.28394499 149 87 31 0 1 0 0
-0.07096 -0.51608998 -0.28476 129 72 32 0 1 0 0
0.2397 -0.51929998 -0.28035 1 0 0 0 1 0 0
0.24118 -0.51988 -0.28470999 5 0 0 0 1 0 0
0.28873 -0.51678997 -0.28108001 0 0 0 0 1 0 0
-0.33258498 -0.51208997 -0.282675 139 71 15 0 1 0 0
-0.31915 -0.51380998 -0.28332999 128 62 0 0 1 0 0
-0.31055999 -0.51106 -0.28112 160 89 34 0 1 0 0
-0.30338001 -0.51109999 -0.28327999 151 81 22 0 1 0 0
-0.29774001 -0.51340997 -0.28266001 147 79 22 0 1 0 0
-0.27121001 -0.51331002 -0.28400001 145 79 22 0 1 0 0
-0.24645001 -0.51091999 -0.28171 144 79 28 0 1 0 0
-0.23322 -0.51486999 -0.28108999 130 66 8 0 1 0 0
-0.22277001 -0.51490998 -0.28428 130 70 18 0 1 0 0
-0.20705999 -0.51133001 -0.28317001 130 69 12 0 1 0 0
-0.19954 -0.51129001 -0.28494 138 88 46 0 1 0 0
-0.093174994 -0.51144999 -0.28384501 137 86 42 0 1 0 0
-0.041170001 -0.51245999 -0.28064001 147 83 28 0 1 0 0
-0.037390001 -0.51286 -0.28130001 139 74 16 0 1 0 0
-0.025730001 -0.51217002 -0.28422999 153 85 24 0 1 0 0
-0.02468 -0.51093 -0.28402999 152 84 21 0 1 0 0
-0.01015 -0.51201999 -0.28015 152 86 29 0 1 0 0
-0.00611 -0.51102 -0.28020999 140 74 5 0 1 0 0
0.0045099999 -0.51144999 -0.28393999 152 84 21 0 1 0 0
0.0063299998 -0.51106 -0.28222001 144 75 7 0 1 0 0
0.03847 -0.51081002 -0.28075001 146 79 15 0 1 0 0
0.050030001 -0.51098001 -0.28428 140 71 8 0 1 0 0
0.062645003 -0.51129502 -0.28219002 137 66 13 0 1 0 0
0.082319997 -0.51072001 -0.28279999 153 84 19 0 1 0 0
0.10522 -0.51043999 -0.28470001 144 73 6 0 1 0 0
0.11488 -0.51081002 -0.28189999 153 84 21 0 1 0 0
0.1204 -0.51200002 -0.28130999 137 67 0 0 1 0 0
0.13071001 -0.51203001 -0.28450999 123 52 0 0 1 0 0
0.14826 -0.51133001 -0.28053001 135 63 0 0 1 0 0
0.15973 -0.51115 -0.28415 138 67 0 0 1 0 0
0.16771001 -0.51056999 -0.2836 140 68 0 0 1 0 0
0.18856999 -0.51236999 -0.28060001 148 85 27 0 1 0 0
0.19356 -0.51345998 -0.28422001 147 79 7 0 1 0 0
0.19926 -0.51107001 -0.28332001 136 70 3 0 1 0 0
0.20209 -0.51277 -0.28013 126 55 0 0 1 0 0
0.30173999 -0.51169997 -0.28365999 0 0 0 0 1 0 0
-0.33495 -0.50665998 -0.28408 154 83 30 0 1 0 0
-0.24739 -0.50893998 -0.28123999 136 75 20 0 1 0 0
-0.22554 -0.50988001 -0.2823 122 60 20 0 1 0 0
-0.091729999 -0.50661999 -0.28172001 145 87 36 0 1 0 0
-0.089309998 -0.50665998 -0.28308001 141 84 40 0 1 0 0
-0.082800001 -0.50799 -0.28369999 133 69 14 0 1 0 0
0.031509999 -0.50990999 -0.28176001 143 74 6 0 1 0 0
0.30517 -0.50786 -0.28422001 0 0 0 0 1 0 0
-0.22524001 -0.50475001 -0.28378001 126 62 20 0 1 0 0
-0.20299 -0.50443 -0.28391001 115 64 15 0 1 0 0
-0.14099 -0.50033998 -0.28242001 105 76 45 0 1 0 0
0.28472999 -0.50316 -0.28415 138 68 0 0 1 0 0
0.28789502 -0.50271499 -0.28237998 138 64 0 0 1 0 0
0.24413 -0.49957001 -0.28483999 33 25 3 0 1 0 0
-0.16852 -0.49054 -0.28018001 134 111 84 0 1 0 0
-0.1585 -0.49252 -0.28472999 90 53 27 0 1 0 0
-0.13850001 -0.49250001 -0.28016999 91 61 25 0 1 0 0
0.24099 -0.48890001 -0.28200999 55 43 20 0 1 0 0
0.20547 -0.48245999 -0.28327 18 8 0 0 1 0 0
0.21354 -0.4763 -0.28257 39 26 22 0 1 0 0
0.24567001 -0.47819 -0.28257 41 33 13 0 1 0 0
0.224185 -0.47303998 -0.28372502 44 35 17 0 1 0 0
-0.58140999 -1.31152 -0.27625 48 18 0 0 1 0 0
-0.63147998 -1.3034199 -0.27731001 49 19 0 0 1 0 0
-0.57066 -1.29337 -0.27834001 44 15 0 0 1 0 0
-0.54987001 -1.27451 -0.27903 36 8 0 0 1 0 0
0.06112 -0.54368001 -0.27846 154 92 40 0 1 0 0
0.10991 -0.54364002 -0.27715001 169 103 43 0 1 0 0
0.12788001 -0.54276001 -0.27702999 170 107 49 0 1 0 0
0.15177999 -0.54295999 -0.27934 169 101 31 0 1 0 0
0.17462 -0.54232001 -0.27541 171 104 40 0 1 0 0
0.19785 -0.54220003 -0.27778 161 89 22 0 1 0 0
0.22068 -0.54135001 -0.27961999 185 114 56 0 1 0 0
0.23104 -0.54022002 -0.27741 168 96 20 0 1 0 0
-0.35335001 -0.53513998 -0.27835 152 82 23 0 1 0 0
0.043719999 -0.53792 -0.27610001 121 81 35 0 1 0 0
0.33149001 -0.52796 -0.27702001 104 68 35 0 1 0 0
0.35398 -0.52752 -0.27814001 93 56 14 0 1 0 0
0.36989999 -0.52596003 -0.27709001 80 47 13 0 1 0 0
0.39554 -0.52814001 -0.27792001 140 85 30 0 1 0 0
0.44187999 -0.52849001 -0.27695999 165 110 56 0 1 0 0
0.26203001 -0.52423 -0.27983001 14 0 0 0 1 0 0
0.26545 -0.52341998 -0.27579001 13 0 0 0 1 0 0
0.23829 -0.51884001 -0.27603999 4 0 0 0 1 0 0
0.28746 -0.51669002 -0.27669001 0 0 0 0 1 0 0
-0.33586001 -0.51332003 -0.27605999 146 80 27 0 1 0 0
-0.31279999 -0.51389998 -0.27840999 142 76 21 0 1 0 0
-0.29743999 -0.51111001 -0.27691999 148 106 72 0 1 0 0
-0.29135001 -0.51349002 -0.27772 145 80 20 0 1 0 0
-0.27272001 -0.51341999 -0.27625 143 77 31 0 1 0 0
-0.25516999 -0.51199001 -0.27996999 137 76 21 0 1 0 0
-0.20591 -0.51125002 -0.27908999 122 71 34 0 1 0 0
-0.01651 -0.51104498 -0.27626002 149 83 21 0 1 0 0
-0.0053500002 -0.51174003 -0.2793 143 76 14 0 1 0 0
0.026760001 -0.51148999 -0.27781999 148 81 19 0 1 0 0
0.041700002 -0.51120001 -0.27601001 160 89 36 0 1 0 0
0.05926 -0.51124001 -0.27627 146 76 16 0 1 0 0
0.070770003 -0.51099002 -0.27952999 149 83 14 0 1 0 0
0.081940003 -0.511145 -0.27810001 156 84 17 0 1 0 0
0.10305 -0.51073003 -0.27805001 147 79 7 0 1 0 0
0.11042 -0.51284999 -0.27864999 151 79 3 0 1 0 0
0.13576999 -0.51125002 -0.27741 138 70 9 0 1 0 0
0.16822 -0.51099002 -0.27590999 135 64 0 0 1 0 0
0.17794999 -0.51043999 -0.27750999 131 62 0 0 1 0 0
0.20158 -0.51245999 -0.27544001 143 75 0 0 1 0 0
0.30046999 -0.51173002 -0.27924001 0 0 0 0 1 0 0
-0.33623001 -0.50575 -0.27726001 145 75 14 0 1 0 0
-0.267515 -0.50910002 -0.27746499 127 70 13 0 1 0 0
-0.21720999 -0.50854999 -0.27783 129 64 13 0 1 0 0
-0.07181 -0.50665998 -0.27772 118 61 14 0 1 0 0
-0.0691 -0.50621003 -0.27821001 125 67 29 0 1 0 0
-0.064110003 -0.50630999 -0.27880999 131 71 19 0 1 0 0
0.020570001 -0.50989002 -0.27827001 142 75 13 0 1 0 0
-0.19286001 -0.50057 -0.27992001 151 130 103 0 1 0 0
-0.18037 -0.49667999 -0.27731001 159 134 104 0 1 0 0
-0.12086 -0.49772 -0.27682 104 75 43 0 1 0 0
-0.17986 -0.49248001 -0.27818999 156 131 107 0 1 0 0
-0.15018 -0.49498999 -0.27570999 148 119 99 0 1 0 0
-0.11887 -0.49248001 -0.27568001 84 54 30 0 1 0 0
0.20581999 -0.48974001 -0.27671 18 9 0 0 1 0 0
0.24422 -0.48982999 -0.27895999 37 28 0 0 1 0 0
0.25468001 -0.48010001 -0.27601001 29 17 5 0 1 0 0
0.23257001 -0.47544 -0.27748999 46 33 12 0 1 0 0
-0.50357002 -1.32469 -0.27404001 21 0 0 0 1 0 0
-0.60373998 -1.30825 -0.27241999 39 9 0 0 1 0 0
-0.49432999 -1.30389 -0.27318999 31 3 0 0 1 0 0
-0.59038001 -1.2914 -0.27489999 35 10 0 0 1 0 0
-0.64827001 -1.28514 -0.27147001 55 22 0 0 1 0 0
0.085220002 -0.54363 -0.27469 162 100 44 0 1 0 0
0.10914 -0.54333001 -0.27085 169 100 46 0 1 0 0
0.13322 -0.54232001 -0.27298 165 100 47 0 1 0 0
0.15095 -0.54262 -0.27331001 176 109 58 0 1 0 0
0.19689 -0.54185998 -0.27164999 166 99 33 0 1 0 0
0.21969 -0.54099 -0.27372 179 109 37 0 1 0 0
0.22994 -0.53961003 -0.27147001 169 97 21 0 1 0 0
0.33033001 -0.52789003 -0.27118999 103 68 50 0 1 0 0
0.35282999 -0.52744001 -0.27250999 93 57 12 0 1 0 0
0.36883 -0.52612001 -0.27160001 72 37 17 0 1 0 0
0.39471 -0.52815998 -0.27173001 145 93 33 0 1 0 0
0.41817999 -0.52796 -0.27428001 142 87 33 0 1 0 0
0.44108999 -0.52872002 -0.27113 163 112 63 0 1 0 0
0.45234999 -0.52717 -0.27452999 154 101 62 0 1 0 0
-0.35730001 -0.52249002 -0.27401 97 49 10 0 1 0 0
0.26043999 -0.52420998 -0.27491999 8 0 0 0 1 0 0
-0.23445 -0.51542997 -0.27072999 132 69 20 0 1 0 0
0.23684999 -0.51839 -0.27160001 3 0 0 0 1 0 0
0.28612 -0.51648003 -0.27215001 0 0 0 0 1 0 0
-0.31309 -0.51258999 -0.27288997 146 76 24 0 1 0 0
-0.29269001 -0.51359999 -0.27065 138 74 18 0 1 0 0
-0.25669 -0.51209998 -0.27225 136 73 12 0 1 0 0
-0.24797 -0.51102 -0.27401 132 69 22 0 1 0 0
-0.22673 -0.51027 -0.27169001 121 59 9 0 1 0 0
-0.2238 -0.51497 -0.27395001 126 64 8 0 1 0 0
-0.20793 -0.51007998 -0.27077001 51 26 0 0 1 0 0
0.0038699999 -0.51068002 -0.27057001 143 78 18 0 1 0 0
0.01536 -0.51174003 -0.27458 149 81 24 0 1 0 0
0.047449999 -0.51148999 -0.27309999 140 73 9 0 1 0 0
0.06036 -0.51107001 -0.27147999 139 71 15 0 1 0 0
0.079599999 -0.51124001 -0.27160999 159 88 25 0 1 0 0
0.091360003 -0.51055998 -0.27452999 150 84 15 0 1 0 0
0.11181 -0.51099002 -0.27013001 149 78 0 0 1 0 0
0.118 -0.51178002 -0.271 147 76 4 0 1 0 0
0.12375 -0.51073998 -0.27329999 139 70 7 0 1 0 0
0.12817 -0.51159 -0.27405 141 72 7 0 1 0 0
0.15667 -0.51169002 -0.27291 140 68 3 0 1 0 0
0.18954 -0.51230001 -0.27192 148 79 0 0 1 0 0
0.1965 -0.51152003 -0.27257001 151 75 21 0 1 0 0
0.20039999 -0.51405001 -0.27168 140 72 4 0 1 0 0
0.29927999 -0.51187998 -0.27498001 0 0 0 0 1 0 0
-0.2694 -0.50738001 -0.27186 123 67 20 0 1 0 0
-0.2485 -0.50857002 -0.27342999 143 81 29 0 1 0 0
-0.052250002 -0.50536001 -0.27298999 135 76 16 0 1 0 0
-0.04699 -0.50629997 -0.27425498 134 79 25 0 1 0 0
-0.00157 -0.50989002 -0.27105999 145 76 20 0 1 0 0
0.04047 -0.50949001 -0.27397999 143 75 0 0 1 0 0
-0.33745 -0.50483 -0.27068999 142 74 17 0 1 0 0
-0.22643 -0.50479001 -0.27226001 128 67 8 0 1 0 0
-0.20310999 -0.50173998 -0.27265999 57 32 18 0 1 0 0
0.2599 -0.50050002 -0.27158001 0 0 0 0 1 0 0
0.20694999 -0.49886999 -0.27066001 28 20 12 0 1 0 0
-0.16017 -0.49272001 -0.27102 168 143 113 0 1 0 0
-0.13056 -0.49236 -0.27024001 148 123 97 0 1 0 0
-0.098779999 -0.49114999 -0.27034 105 82 55 0 1 0 0
-0.20236 -0.48835 -0.27035001 255 234 205 0 1 0 0
-0.18520001 -0.48688999 -0.27333 221 193 157 0 1 0 0
-0.17791 -0.4878 -0.27465999 233 202 170 0 1 0 0
-0.16265 -0.48604 -0.27223 220 194 157 0 1 0 0
-0.15895 -0.48851001 -0.27123001 165 143 114 0 1 0 0
-0.15493 -0.48741001 -0.27489001 208 181 151 0 1 0 0
-0.14866 -0.4892 -0.27489999 142 117 89 0 1 0 0
-0.14041001 -0.48734999 -0.27193001 203 174 140 0 1 0 0
-0.12879001 -0.48874 -0.27011999 150 122 97 0 1 0 0
0.25068 -0.48853001 -0.27123001 36 25 6 0 1 0 0
0.21216001 -0.48012999 -0.27397999 7 2 0 0 1 0 0
0.24097 -0.4765 -0.27045 148 123 79 0 1 0 0
0.22029001 -0.47437999 -0.27361 83 65 46 0 1 0 0
0.24530999 -0.46656999 -0.27432999 0 0 0 0 1 0 0
-0.52107 -1.30557 -0.26901001 19 0 0 0 1 0 0
-0.62396002 -1.30074 -0.26802 26 0 0 0 1 0 0
-0.51543999 -1.30119 -0.26986 27 0 0 0 1 0 0
-0.53583997 -1.29935 -0.26642001 36 6 0 0 1 0 0
-0.53886002 -1.29048 -0.26514 20 0 0 0 1 0 0
0.11457 -0.54097998 -0.26617 171 105 50 0 1 0 0
0.13239001 -0.54176003 -0.26668 172 106 51 0 1 0 0
0.15012001 -0.54228002 -0.26730001 169 101 42 0 1 0 0
0.17378999 -0.54222 -0.26953 168 95 26 0 1 0 0
0.19596 -0.54150999 -0.26574001 159 89 40 0 1 0 0
0.21867999 -0.54064 -0.26765999 172 102 41 0 1 0 0
0.22891 -0.53925002 -0.26546001 166 99 21 0 1 0 0
-0.35525 -0.53342998 -0.26991001 153 84 30 0 1 0 0
-0.35938001 -0.52570999 -0.26865 88 41 0 0 1 0 0
0.32914001 -0.52757001 -0.26547 100 62 27 0 1 0 0
0.35163999 -0.52737999 -0.26673001 86 50 23 0 1 0 0
0.36754999 -0.52578998 -0.26594999 81 45 28 0 1 0 0
0.39390001 -0.52815998 -0.26574001 152 103 54 0 1 0 0
0.39993 -0.52811003 -0.26784 146 95 42 0 1 0 0
0.41723001 -0.52771997 -0.26800999 144 90 31 0 1 0 0
0.45155999 -0.52740002 -0.26875001 150 99 34 0 1 0 0
-0.04572 -0.52025002 -0.26646 236 211 181 0 1 0 0
0.25755 -0.52463001 -0.26538 9 0 0 0 1 0 0
